# .PCD v0.7 - Point Cloud Data file format
VERSION 0.7
FIELDS x y z intensity ring
SIZE 4 4 4 4 2
TYPE F F F F U
COUNT 1 1 1 1 1
WIDTH 973
HEIGHT 1
VIEWPOINT 0 0 0 1 0 0 0
POINTS 973
DATA ascii
0.57468933 -3.3171082 -0.17643188 7.2069707e+31 2
1.4640864 -8.4507103 -0.14970495 7.2069707e+31 3
0.26682633 -1.4955698 -0.18653248 7.2069707e+31 0
0.37083527 -2.0785432 -0.1847204 7.2069707e+31 1
0.5915466 -3.3156369 -0.17650893 7.2069707e+31 2
1.5024836 -8.4214668 -0.14931828 7.2069707e+31 3
0.27390361 -1.4920008 -0.18625604 7.2069707e+31 0
0.37712973 -2.0542915 -0.18273063 7.2069707e+31 1
0.60950333 -3.320071 -0.1769052 7.2069707e+31 2
1.535598 -8.3646708 -0.14844568 7.2069707e+31 3
0.27940822 -1.4802207 -0.18495774 7.2069707e+31 0
0.38325229 -2.0303552 -0.18076989 7.2069707e+31 1
0.62189633 -3.2946196 -0.17571275 7.2069707e+31 2
1.5691901 -8.313097 -0.14766799 7.2069707e+31 3
0.28646141 -1.4769799 -0.18472968 7.2069707e+31 0
0.39791158 -2.0516112 -0.18283744 7.2069707e+31 1
0.63731742 -3.2859747 -0.17541967 7.2069707e+31 2
1.6039772 -8.2700214 -0.14704362 7.2069707e+31 3
0.2942678 -1.4776156 -0.18499114 7.2069707e+31 0
0.40640059 -2.0406711 -0.18204154 7.2069707e+31 1
0.65529102 -3.290432 -0.17583054 7.2069707e+31 2
1.6387092 -8.2284985 -0.14644936 7.2069707e+31 3
0.30308422 -1.4830861 -0.18586366 7.2069707e+31 0
0.41869894 -2.048825 -0.18295361 7.2069707e+31 1
0.66943127 -3.275737 -0.17522217 7.2069707e+31 2
1.6688063 -8.1659927 -0.14548376 7.2069707e+31 3
0.31278819 -1.4924438 -0.18723027 7.2069707e+31 0
0.42636502 -2.0343666 -0.18185084 7.2069707e+31 1
0.68253583 -3.2566648 -0.17438258 7.2069707e+31 2
1.7044894 -8.1328344 -0.14504322 7.2069707e+31 3
0.31641051 -1.4729586 -0.18498221 7.2069707e+31 0
0.43629709 -2.0310562 -0.1817479 7.2069707e+31 1
0.70148909 -3.2655816 -0.17504589 7.2069707e+31 2
1.7346724 -8.0752707 -0.14416969 7.2069707e+31 3
0.32498389 -1.4768245 -0.18566972 7.2069707e+31 0
0.44283655 -2.0123825 -0.18027301 7.2069707e+31 1
0.71530652 -3.2505679 -0.17443088 7.2069707e+31 2
1.767655 -8.0327559 -0.14356686 7.2069707e+31 3
0.33390036 -1.4819573 -0.18652284 7.2069707e+31 0
0.45707211 -2.0286331 -0.18193148 7.2069707e+31 1
0.72696406 -3.2265007 -0.17333251 7.2069707e+31 2
1.8018417 -7.9971538 -0.14308998 7.2069707e+31 3
0.33765775 -1.4644049 -0.1845241 7.2069707e+31 0
0.46467239 -2.0152612 -0.18093862 7.2069707e+31 1
0.74237621 -3.2196491 -0.17316192 7.2069707e+31 2
1.8306944 -7.939631 -0.14222296 7.2069707e+31 3
0.34623724 -1.468007 -0.18519408 7.2069707e+31 0
0.47549459 -2.0160434 -0.18122032 7.2069707e+31 1
0.75734055 -3.2110388 -0.17290059 7.2069707e+31 2
1.8641552 -7.9038081 -0.14174666 7.2069707e+31 3
0.35305887 -1.4640855 -0.18492003 7.2069707e+31 0
0.48765925 -2.0222542 -0.18199578 7.2069707e+31 1
0.77207893 -3.2017026 -0.17260385 7.2069707e+31 2
1.895293 -7.8595133 -0.14112067 7.2069707e+31 3
0.3616004 -1.4672353 -0.18554419 7.2069707e+31 0
0.49475938 -2.0075431 -0.18089247 7.2069707e+31 1
0.78607947 -3.1896079 -0.17216182 7.2069707e+31 2
1.9271308 -7.8195553 -0.14057468 7.2069707e+31 3
0.36510012 -1.4501501 -0.18361247 7.2069707e+31 0
0.50165129 -1.9925213 -0.17976294 7.2069707e+31 1
0.80271173 -3.1883106 -0.17230654 7.2069707e+31 2
1.9574596 -7.7748818 -0.13994598 7.2069707e+31 3
0.37552178 -1.4606203 -0.18517387 7.2069707e+31 0
0.51056612 -1.9858854 -0.17939262 7.2069707e+31 1
0.81685185 -3.177207 -0.17192531 7.2069707e+31 2
1.9882022 -7.7332625 -0.13937427 7.2069707e+31 3
0.38087943 -1.4512924 -0.18423073 7.2069707e+31 0
0.52120465 -1.9859838 -0.17963496 7.2069707e+31 1
0.8311854 -3.1671257 -0.17160282 7.2069707e+31 2
2.0144176 -7.6756806 -0.1385165 7.2069707e+31 3
0.39065614 -1.4587624 -0.18542494 7.2069707e+31 0
0.53225851 -1.9875247 -0.18001311 7.2069707e+31 1
0.84239835 -3.1456285 -0.1706644 7.2069707e+31 2
2.0480781 -7.6477981 -0.13819662 7.2069707e+31 3
0.39338425 -1.4400593 -0.18329561 7.2069707e+31 0
0.53889853 -1.9727427 -0.17891638 7.2069707e+31 1
0.85743791 -3.138818 -0.17052566 7.2069707e+31 2
2.0770218 -7.6033421 -0.13757947 7.2069707e+31 3
0.3988511 -1.4318346 -0.1825006 7.2069707e+31 0
0.54854655 -1.9692258 -0.17884424 7.2069707e+31 1
0.8706094 -3.1253984 -0.17003126 7.2069707e+31 2
2.1091564 -7.5716548 -0.13719545 7.2069707e+31 3
0.40892982 -1.4400874 -0.18381114 7.2069707e+31 0
0.55760157 -1.96365 -0.17858914 7.2069707e+31 1
0.88446587 -3.1147354 -0.16968992 7.2069707e+31 2
2.1320231 -7.5081339 -0.13623618 7.2069707e+31 3
0.41161275 -1.4223979 -0.18181401 7.2069707e+31 0
0.56659925 -1.9579802 -0.17832923 7.2069707e+31 1
0.90246367 -3.1186168 -0.17014539 7.2069707e+31 2
2.1639445 -7.4778781 -0.13588205 7.2069707e+31 3
0.4244523 -1.4397346 -0.18429933 7.2069707e+31 0
0.57537025 -1.9516457 -0.17801242 7.2069707e+31 1
0.91741472 -3.1118543 -0.17002489 7.2069707e+31 2
0.95425797 -3.2368259 -0.058903091 3.4540873e-37 3
0.42657316 -1.4206682 -0.18212974 7.2069707e+31 0
0.58401746 -1.9450239 -0.17767289 7.2069707e+31 1
0.92901522 -3.0940118 -0.169302 7.2069707e+31 2
0.95734751 -3.1883702 -0.058107797 3.4540873e-37 3
0.43418765 -1.4201753 -0.18234293 7.2069707e+31 0
0.59312648 -1.9400451 -0.17748711 7.2069707e+31 1
0.94065177 -3.0767581 -0.16861348 7.2069707e+31 2
0.96986437 -3.1723092 -0.057902846 3.4540873e-37 3
0.98049051 -3.2070658 0.058537334 3.4540873e-37 4
0.44550195 -1.4315116 -0.18408252 7.2069707e+31 0
0.60559684 -1.9459375 -0.1783013 7.2069707e+31 1
0.95762581 -3.0770967 -0.16889264 7.2069707e+31 2
0.98706841 -3.1717031 -0.057981256 3.4540873e-37 3
0.99340254 -3.1920562 0.058353413 3.4540873e-37 4
0.44799122 -1.414513 -0.18218273 7.2069707e+31 0
0.61615795 -1.9454923 -0.17854092 7.2069707e+31 1
0.97041547 -3.0640452 -0.16844082 7.2069707e+31 2
1.0030899 -3.1672132 -0.057990253 3.4540873e-37 3
1.0155852 -3.2066662 0.058712702 3.4540873e-37 4
0.45286053 -1.405405 -0.18129939 7.2069707e+31 0
0.62477261 -1.9389161 -0.17822222 7.2069707e+31 1
0.98570365 -3.0590274 -0.16843414 7.2069707e+31 2
1.0184089 -3.1605248 -0.057960417 3.4540873e-37 3
0.46549219 -1.4202105 -0.18350764 7.2069707e+31 0
0.63111883 -1.9255352 -0.17728047 7.2069707e+31 1
0.99795026 -3.044733 -0.16792005 7.2069707e+31 2
1.0373093 -3.1648169 -0.058133632 3.4540873e-37 3
0.47082329 -1.4125431 -0.18281919 7.2069707e+31 0
0.63972694 -1.9192803 -0.17699724 7.2069707e+31 1
1.0101304 -3.0305486 -0.16741458 7.2069707e+31 2
2.3779049 -7.1340842 -0.13126102 7.2069707e+31 3
0.4769026 -1.4072579 -0.18244188 7.2069707e+31 0
0.64966041 -1.9170367 -0.17708804 7.2069707e+31 1
1.0271362 -3.0309029 -0.16771612 7.2069707e+31 2
2.4066012 -7.1014681 -0.13088094 7.2069707e+31 3
0.47916016 -1.3909723 -0.18063928 7.2069707e+31 0
0.65647501 -1.9057064 -0.17634279 7.2069707e+31 1
1.0352614 -3.0052996 -0.16658406 7.2069707e+31 2
2.4287603 -7.0505409 -0.13016482 7.2069707e+31 3
0.48690265 -1.3907983 -0.18093097 7.2069707e+31 0
0.66734564 -1.9062191 -0.17669716 7.2069707e+31 1
1.0580404 -3.022207 -0.16781273 7.2069707e+31 2
2.4612186 -7.030273 -0.13001648 7.2069707e+31 3
0.49595425 -1.3942329 -0.1816985 7.2069707e+31 0
0.67956829 -1.910411 -0.17739888 7.2069707e+31 1
1.0633795 -2.9893858 -0.1662838 7.2069707e+31 2
2.4825671 -6.9790235 -0.12929691 7.2069707e+31 3
0.49846676 -1.3793874 -0.18008678 7.2069707e+31 0
0.68599921 -1.8983386 -0.17659453 7.2069707e+31 1
1.0767366 -2.9796107 -0.16603783 7.2069707e+31 2
2.5128627 -6.9537458 -0.12906004 7.2069707e+31 3
0.51166862 -1.3940461 -0.18233269 7.2069707e+31 0
0.69131345 -1.8834901 -0.175533 7.2069707e+31 1
1.0895039 -2.9683638 -0.16571295 7.2069707e+31 2
2.5358465 -6.9089379 -0.12846243 7.2069707e+31 3
0.51558512 -1.383268 -0.18125832 7.2069707e+31 0
0.70734555 -1.8977438 -0.17718919 7.2069707e+31 1
1.1039901 -2.961905 -0.16565888 7.2069707e+31 2
2.5616004 -6.8725414 -0.12802254 7.2069707e+31 3
0.52387244 -1.3842865 -0.18173316 7.2069707e+31 0
0.71792215 -1.8970456 -0.17745735 7.2069707e+31 1
1.1153437 -2.947197 -0.16514647 7.2069707e+31 2
2.5887992 -6.8406725 -0.12766871 7.2069707e+31 3
0.52438533 -1.36496 -0.17953832 7.2069707e+31 0
0.71564442 -1.8628019 -0.17458701 7.2069707e+31 1
1.1310492 -2.9440882 -0.16528751 7.2069707e+31 2
2.612571 -6.8004475 -0.12716049 7.2069707e+31 3
0.53370339 -1.3687067 -0.18038033 7.2069707e+31 0
0.7325182 -1.8785765 -0.17640693 7.2069707e+31 1
1.1369952 -2.9158762 -0.16402112 7.2069707e+31 2
2.6355577 -6.7590084 -0.12663075 7.2069707e+31 3
0.54512954 -1.3775939 -0.18190894 7.2069707e+31 0
0.73715019 -1.8628482 -0.17527431 7.2069707e+31 1
1.1597551 -2.9308107 -0.16518573 7.2069707e+31 2
2.6604207 -6.723134 -0.12620659 7.2069707e+31 3
0.54834241 -1.3656899 -0.18069728 7.2069707e+31 0
0.7452991 -1.8562261 -0.17500013 7.2069707e+31 1
1.1707737 -2.9159043 -0.16467386 7.2069707e+31 2
2.6828012 -6.6817279 -0.12567987 7.2069707e+31 3
0.55476916 -1.3619374 -0.18056598 7.2069707e+31 0
0.75130373 -1.8444226 -0.17423974 7.2069707e+31 1
1.1828341 -2.9038136 -0.16432342 7.2069707e+31 2
2.7048552 -6.6403184 -0.12515411 7.2069707e+31 3
0.56377786 -1.3644615 -0.18127257 7.2069707e+31 0
0.75767744 -1.8337394 -0.17358667 7.2069707e+31 1
1.1972578 -2.8976166 -0.16430986 7.2069707e+31 2
2.7273781 -6.600831 -0.12466566 7.2069707e+31 3
0.56575137 -1.3500479 -0.1797317 7.2069707e+31 0
0.76448238 -1.8242781 -0.17305116 7.2069707e+31 1
1.2082082 -2.8831375 -0.16382976 7.2069707e+31 2
2.74825 -6.5581264 -0.12411741 7.2069707e+31 3
0.57691824 -1.3575888 -0.18111785 7.2069707e+31 0
0.78089339 -1.8375776 -0.17468141 7.2069707e+31 1
1.2250277 -2.8827026 -0.16415147 7.2069707e+31 2
2.7675405 -6.5125022 -0.12351461 7.2069707e+31 3
0.57667017 -1.3383511 -0.17893425 7.2069707e+31 0
0.78622669 -1.8246953 -0.17382883 7.2069707e+31 1
1.2269326 -2.8474972 -0.1624945 7.2069707e+31 2
2.7962282 -6.4895597 -0.12334345 7.2069707e+31 3
0.58339727 -1.3355258 -0.17894474 7.2069707e+31 0
0.80136132 -1.834494 -0.17514227 7.2069707e+31 1
1.2465847 -2.8537087 -0.16320305 7.2069707e+31 2
2.815496 -6.4452953 -0.12276849 7.2069707e+31 3
0.59005916 -1.3325505 -0.17893967 7.2069707e+31 0
0.80716264 -1.8228427 -0.1744135 7.2069707e+31 1
1.2577558 -2.8404326 -0.16280185 7.2069707e+31 2
2.8397784 -6.413168 -0.12242581 7.2069707e+31 3
0.60349739 -1.3446745 -0.18097115 7.2069707e+31 0
0.81263965 -1.810672 -0.17363608 7.2069707e+31 1
1.2607658 -2.8091583 -0.16136909 7.2069707e+31 2
2.8619885 -6.3769011 -0.12200547 7.2069707e+31 3
0.61014122 -1.3414599 -0.18094733 7.2069707e+31 0
0.81495559 -1.7917658 -0.17221214 7.2069707e+31 1
1.2767414 -2.8070505 -0.16161315 7.2069707e+31 2
2.8900504 -6.3540807 -0.12184415 7.2069707e+31 3
0.6046297 -1.3118756 -0.17736284 7.2069707e+31 0
0.8297683 -1.8003627 -0.17343549 7.2069707e+31 1
1.2878772 -2.7943296 -0.16124994 7.2069707e+31 2
2.9080226 -6.309587 -0.1212686 7.2069707e+31 3
0.62292165 -1.3339556 -0.18076737 7.2069707e+31 0
0.84010828 -1.7990499 -0.17371202 7.2069707e+31 1
1.3004496 -2.784848 -0.16107646 7.2069707e+31 2
2.9259901 -6.265862 -0.12070824 7.2069707e+31 3
0.62448704 -1.3200297 -0.17930165 7.2069707e+31 0
0.84588027 -1.7880068 -0.17305245 7.2069707e+31 1
1.3128753 -2.7751329 -0.16089268 7.2069707e+31 2
2.9445271 -6.2240901 -0.120186 7.2069707e+31 3
0.62448573 -1.3031107 -0.17742597 7.2069707e+31 0
0.85510844 -1.7843499 -0.17311068 7.2069707e+31 1
1.3294046 -2.774061 -0.16121437 7.2069707e+31 2
2.9706306 -6.1987977 -0.11998329 7.2069707e+31 3
0.63207597 -1.3021815 -0.17772806 7.2069707e+31 0
0.86416793 -1.7803296 -0.17313819 7.2069707e+31 1
1.3481377 -2.7773879 -0.16179791 7.2069707e+31 2
2.9896712 -6.1592193 -0.11950541 7.2069707e+31 3
0.63067275 -1.2829018 -0.1755254 7.2069707e+31 0
0.87456232 -1.779017 -0.17343415 7.2069707e+31 1
1.3485308 -2.7431538 -0.16019489 7.2069707e+31 2
3.0148704 -6.1327887 -0.11928394 7.2069707e+31 3
0.65132737 -1.3083324 -0.17944868 7.2069707e+31 0
0.88218325 -1.7720567 -0.17318399 7.2069707e+31 1
1.368055 -2.7480357 -0.16087791 7.2069707e+31 2
3.0336828 -6.093811 -0.11881974 7.2069707e+31 3
0.64918381 -1.2878259 -0.17707959 7.2069707e+31 0
0.88373065 -1.7531111 -0.17176266 7.2069707e+31 1
1.3726382 -2.7229872 -0.15981181 7.2069707e+31 2
3.0517988 -6.0540419 -0.11834072 7.2069707e+31 3
0.65047568 -1.2744751 -0.17568938 7.2069707e+31 0
0.89907336 -1.7615517 -0.17302847 7.2069707e+31 1
1.3887147 -2.7209046 -0.1600956 7.2069707e+31 2
3.0668476 -6.0088654 -0.11775628 7.2069707e+31 3
0.66481805 -1.2866275 -0.1778212 7.2069707e+31 0
0.8997466 -1.7412865 -0.17147821 7.2069707e+31 1
1.4034315 -2.7160718 -0.16022263 7.2069707e+31 2
3.0945418 -5.9888906 -0.11766696 7.2069707e+31 3
0.67638159 -1.2930919 -0.17918037 7.2069707e+31 0
0.908571 -1.7369866 -0.17150056 7.2069707e+31 1
1.404332 -2.684772 -0.15878899 7.2069707e+31 2
3.1103377 -5.9462776 -0.11713418 7.2069707e+31 3
0.67776221 -1.2800866 -0.17784621 7.2069707e+31 0
0.91396707 -1.7262057 -0.17088573 7.2069707e+31 1
1.4242263 -2.6899302 -0.15951379 7.2069707e+31 2
3.1291325 -5.9099793 -0.11672629 7.2069707e+31 3
0.68821347 -1.2842375 -0.17889933 7.2069707e+31 0
0.9284063 -1.7324482 -0.17196167 7.2069707e+31 1
1.4340218 -2.6759498 -0.15910847 7.2069707e+31 2
3.1525762 -5.8828502 -0.11650073 7.2069707e+31 3
0.69017696 -1.272558 -0.17775144 7.2069707e+31 0
0.9329139 -1.7201198 -0.17119941 7.2069707e+31 1
1.4439973 -2.6624625 -0.15873438 7.2069707e+31 2
3.1701598 -5.8451858 -0.11606768 7.2069707e+31 3
0.69973195 -1.2749044 -0.17856625 7.2069707e+31 0
0.93952167 -1.7117988 -0.17083722 7.2069707e+31 1
1.4571059 -2.6548319 -0.15871236 7.2069707e+31 2
3.1828947 -5.7992015 -0.11546953 7.2069707e+31 3
0.69482839 -1.2510799 -0.17571436 7.2069707e+31 0
0.95428002 -1.7182381 -0.17195448 7.2069707e+31 1
1.4715465 -2.6496074 -0.15883845 7.2069707e+31 2
3.2081456 -5.7764578 -0.11533502 7.2069707e+31 3
0.70673984 -1.2576525 -0.17713219 7.2069707e+31 0
0.95639735 -1.7019211 -0.17079857 7.2069707e+31 1
1.4815848 -2.6364987 -0.15849528 7.2069707e+31 2
3.2250838 -5.7390771 -0.1149096 7.2069707e+31 3
0.70771641 -1.244758 -0.17581289 7.2069707e+31 0
0.96200812 -1.6920156 -0.1702857 7.2069707e+31 1
1.4892962 -2.6194296 -0.15791538 7.2069707e+31 2
3.2433724 -5.7045641 -0.11454225 7.2069707e+31 3
0.71642715 -1.245525 -0.17642559 7.2069707e+31 0
0.97126585 -1.6885678 -0.17042592 7.2069707e+31 1
1.4998553 -2.6075325 -0.15764885 7.2069707e+31 2
3.2645903 -5.6755643 -0.11428669 7.2069707e+31 3
0.72562188 -1.2470239 -0.17715026 7.2069707e+31 0
0.98089916 -1.685733 -0.17063329 7.2069707e+31 1
1.5117419 -2.5980175 -0.15752918 7.2069707e+31 2
3.2810774 -5.6387243 -0.1138742 7.2069707e+31 3
0.72631043 -1.2339547 -0.175808 7.2069707e+31 0
0.98798668 -1.6785257 -0.17040229 7.2069707e+31 1
1.5192348 -2.5810819 -0.1569615 7.2069707e+31 2
3.3077595 -5.6196704 -0.11382239 7.2069707e+31 3
0.73294312 -1.2310829 -0.17591943 7.2069707e+31 0
0.99959469 -1.6789625 -0.17095251 7.2069707e+31 1
1.5363144 -2.5804601 -0.15738943 7.2069707e+31 2
3.3115304 -5.5621896 -0.11299253 7.2069707e+31 3
0.74585861 -1.2386271 -0.17752883 7.2069707e+31 0
1.0045295 -1.6681948 -0.17036606 7.2069707e+31 1
1.5366948 -2.5519471 -0.15611762 7.2069707e+31 2
3.3369765 -5.5416255 -0.11291274 7.2069707e+31 3
0.74093932 -1.2166334 -0.17490602 7.2069707e+31 0
1.0119673 -1.6616656 -0.17021452 7.2069707e+31 1
1.5524147 -2.549088 -0.15641621 7.2069707e+31 2
3.3536911 -5.5068111 -0.11254407 7.2069707e+31 3
0.75082123 -1.2190795 -0.17579584 7.2069707e+31 0
1.016184 -1.6499387 -0.16953227 7.2069707e+31 1
1.5657585 -2.5422616 -0.15647636 7.2069707e+31 2
3.3711348 -5.4735818 -0.11220846 7.2069707e+31 3
0.76197922 -1.2234368 -0.17697206 7.2069707e+31 0
1.0268215 -1.6486686 -0.16992784 7.2069707e+31 1
1.5753427 -2.5293765 -0.15616675 7.2069707e+31 2
3.3859246 -5.4364543 -0.11179344 7.2069707e+31 3
0.76651722 -1.2171025 -0.17660867 7.2069707e+31 0
1.0264149 -1.629777 -0.16850819 7.2069707e+31 1
1.5878215 -2.5211976 -0.15615061 7.2069707e+31 2
3.408839 -5.412672 -0.11165392 7.2069707e+31 3
0.77076024 -1.2103597 -0.17618793 7.2069707e+31 0
1.0456197 -1.6419839 -0.17030941 7.2069707e+31 1
1.5984316 -2.5100894 -0.15595628 7.2069707e+31 2
3.4225113 -5.3745241 -0.11121906 7.2069707e+31 3
0.7733925 -1.2011782 -0.17541283 7.2069707e+31 0
1.0430074 -1.6199248 -0.16856088 7.2069707e+31 1
1.6014907 -2.4873214 -0.15503787 7.2069707e+31 2
3.4419587 -5.3458052 -0.11097994 7.2069707e+31 3
0.7850455 -1.2059697 -0.17668428 7.2069707e+31 0
1.0466335 -1.6078154 -0.16784397 7.2069707e+31 1
1.6161237 -2.4826536 -0.15524928 7.2069707e+31 2
3.4573798 -5.311151 -0.11061846 7.2069707e+31 3
0.7861653 -1.1945672 -0.17558815 7.2069707e+31 0
1.0569073 -1.605956 -0.16820009 7.2069707e+31 1
1.6258824 -2.4705057 -0.15499668 7.2069707e+31 2
3.4734881 -5.2779164 -0.11028706 7.2069707e+31 3
0.79570514 -1.1959815 -0.17637937 7.2069707e+31 0
1.0605128 -1.5939995 -0.16750181 7.2069707e+31 1
1.6442245 -2.4713452 -0.15556385 7.2069707e+31 2
3.4891193 -5.244307 -0.10994839 7.2069707e+31 3
0.79353225 -1.1798648 -0.17458621 7.2069707e+31 0
1.0712368 -1.5927703 -0.16793409 7.2069707e+31 1
1.6437218 -2.4439704 -0.15435673 7.2069707e+31 2
3.5021608 -5.2071934 -0.1095365 7.2069707e+31 3
0.80159181 -1.1790587 -0.17505854 7.2069707e+31 0
1.0801389 -1.5887727 -0.16808063 7.2069707e+31 1
1.6513809 -2.4290106 -0.15393211 7.2069707e+31 2
3.5120664 -5.1658864 -0.10903607 7.2069707e+31 3
0.80066669 -1.1651099 -0.17358048 7.2069707e+31 0
1.0943211 -1.5924284 -0.16904485 7.2069707e+31 1
1.6727232 -2.4341044 -0.15478368 7.2069707e+31 2
3.535218 -5.1443601 -0.1089539 7.2069707e+31 3
0.81093425 -1.1674861 -0.17453714 7.2069707e+31 0
1.1015334 -1.585856 -0.16893043 7.2069707e+31 1
1.6825545 -2.4223406 -0.15456933 7.2069707e+31 2
3.5532091 -5.1154852 -0.10871774 7.2069707e+31 3
0.82217562 -1.1711133 -0.17569254 7.2069707e+31 0
1.1028609 -1.5709236 -0.16792582 7.2069707e+31 1
1.6905504 -2.4080329 -0.15419447 7.2069707e+31 2
3.5723612 -5.0884986 -0.10852293 7.2069707e+31 3
0.82226247 -1.1588566 -0.17446916 7.2069707e+31 0
1.1112943 -1.566204 -0.16801392 7.2069707e+31 1
1.6928153 -2.3857713 -0.15330973 7.2069707e+31 2
3.5863369 -5.0544086 -0.10817745 7.2069707e+31 3
0.83461356 -1.1638734 -0.1758513 7.2069707e+31 0
1.1169796 -1.5576346 -0.16769242 7.2069707e+31 1
1.7020569 -2.3735282 -0.15306862 7.2069707e+31 2
3.5975723 -5.0168352 -0.1077574 7.2069707e+31 3
0.83228225 -1.1484381 -0.17414653 7.2069707e+31 0
1.1231354 -1.5497767 -0.16744968 7.2069707e+31 1
1.7089785 -2.3581617 -0.15262748 7.2069707e+31 2
3.6137176 -4.9864469 -0.10749193 7.2069707e+31 3
0.84129798 -1.1487315 -0.17482747 7.2069707e+31 0
1.1298275 -1.5426975 -0.16729385 7.2069707e+31 1
1.7219412 -2.351186 -0.15273203 7.2069707e+31 2
3.6217482 -4.9452348 -0.10699304 7.2069707e+31 3
0.84263331 -1.1385534 -0.17391831 7.2069707e+31 0
1.1328821 -1.5307332 -0.16660936 7.2069707e+31 1
1.7288322 -2.3359721 -0.15230405 7.2069707e+31 2
3.6428404 -4.9221506 -0.10688684 7.2069707e+31 3
0.85512626 -1.1434181 -0.17531314 7.2069707e+31 0
1.1485864 -1.5358135 -0.16778606 7.2069707e+31 1
1.7374545 -2.3232088 -0.15203711 7.2069707e+31 2
3.6593037 -4.8929777 -0.10664982 7.2069707e+31 3
0.85446 -1.1306807 -0.17401388 7.2069707e+31 0
1.1529772 -1.5256994 -0.16730963 7.2069707e+31 1
1.7558858 -2.3235097 -0.15263017 7.2069707e+31 2
3.6716244 -4.8585477 -0.10629868 7.2069707e+31 3
0.86259633 -1.1296452 -0.17451696 7.2069707e+31 0
1.153144 -1.5101427 -0.16623466 7.2069707e+31 1
1.7686744 -2.3162334 -0.15273193 7.2069707e+31 2
3.6883996 -4.8302813 -0.10608291 7.2069707e+31 3
0.86370105 -1.1194289 -0.17360446 7.2069707e+31 0
1.1666249 -1.5120435 -0.16708471 7.2069707e+31 1
1.7622476 -2.2840202 -0.15118764 7.2069707e+31 2
3.6996069 -4.7950001 -0.1057135 7.2069707e+31 3
0.87233353 -1.1189893 -0.17421141 7.2069707e+31 0
1.1679009 -1.4981297 -0.16619121 7.2069707e+31 1
1.7852345 -2.2900169 -0.15217426 7.2069707e+31 2
3.7182684 -4.7696238 -0.10556312 7.2069707e+31 3
0.86447054 -1.0975271 -0.17154166 7.2069707e+31 0
1.1816729 -1.5002457 -0.16708009 7.2069707e+31 1
1.792212 -2.2753828 -0.15179615 7.2069707e+31 2
3.7385201 -4.7464051 -0.10546214 7.2069707e+31 3
0.88821566 -1.1161331 -0.17514256 7.2069707e+31 0
1.1781816 -1.4805046 -0.16553639 7.2069707e+31 1
1.791649 -2.2513885 -0.15079193 7.2069707e+31 2
3.7481279 -4.7099028 -0.10506669 7.2069707e+31 3
0.87889755 -1.0931469 -0.17222388 7.2069707e+31 0
1.1876378 -1.477149 -0.16582389 7.2069707e+31 1
1.8139892 -2.2561865 -0.15171961 7.2069707e+31 2
3.7563288 -4.6720119 -0.10463963 7.2069707e+31 3
0.89024967 -1.0959853 -0.17337105 7.2069707e+31 0
1.1925997 -1.468208 -0.16548835 7.2069707e+31 1
1.8212037 -2.2420814 -0.15138233 7.2069707e+31 2
3.7783434 -4.6515136 -0.10460287 7.2069707e+31 3
0.89414585 -1.0895901 -0.17306533 7.2069707e+31 0
1.2030646 -1.4660327 -0.16591996 7.2069707e+31 1
1.8283162 -2.2279532 -0.15104452 7.2069707e+31 2
3.7900658 -4.6185055 -0.10428597 7.2069707e+31 3
0.89266574 -1.0767486 -0.17173335 7.2069707e+31 0
1.2064329 -1.45522 -0.16537771 7.2069707e+31 1
1.8346744 -2.2130156 -0.15065263 7.2069707e+31 2
3.8001523 -4.5838084 -0.10393079 7.2069707e+31 3
0.91253299 -1.0895649 -0.17450388 7.2069707e+31 0
1.2178274 -1.4540867 -0.1659397 7.2069707e+31 1
1.839305 -2.1961312 -0.15012817 7.2069707e+31 2
3.8128998 -4.5526047 -0.10365479 7.2069707e+31 3
0.90489501 -1.0695219 -0.1720172 7.2069707e+31 0
1.2239188 -1.4465853 -0.16578081 7.2069707e+31 1
1.8580111 -2.1960375 -0.15075576 7.2069707e+31 2
3.8338876 -4.531384 -0.10360733 7.2069707e+31 3
0.91534829 -1.0709574 -0.17298296 7.2069707e+31 0
1.2274334 -1.436097 -0.16528098 7.2069707e+31 1
1.8627026 -2.1793621 -0.15024929 7.2069707e+31 2
3.8441875 -4.4976993 -0.10327589 7.2069707e+31 3
0.90888745 -1.0526822 -0.17076391 7.2069707e+31 0
1.2392813 -1.4353474 -0.16590668 7.2069707e+31 1
1.8699331 -2.1657743 -0.14995605 7.2069707e+31 2
3.8617315 -4.4726944 -0.10314436 7.2069707e+31 3
0.92750198 -1.0634322 -0.17325883 7.2069707e+31 0
1.2491965 -1.4322727 -0.16627206 7.2069707e+31 1
1.8782432 -2.1535094 -0.14975601 7.2069707e+31 2
3.8682671 -4.4351816 -0.10272458 7.2069707e+31 3
0.93564194 -1.0619853 -0.17378405 7.2069707e+31 0
1.2480145 -1.4165386 -0.16516873 7.2069707e+31 1
1.8892747 -2.1443906 -0.14977774 7.2069707e+31 2
3.8809915 -4.4050565 -0.10247558 7.2069707e+31 3
0.93473673 -1.05031 -0.1726371 7.2069707e+31 0
1.2499133 -1.4044559 -0.16448745 7.2069707e+31 1
1.8963343 -2.1308019 -0.14948985 7.2069707e+31 2
3.8966713 -4.3784657 -0.10230953 7.2069707e+31 3
0.93976557 -1.0453753 -0.17259715 7.2069707e+31 0
1.2562675 -1.3974454 -0.16440094 7.2069707e+31 1
1.9022664 -2.1160409 -0.14912051 7.2069707e+31 2
3.9022324 -4.3407607 -0.10188369 7.2069707e+31 3
0.94697952 -1.0428516 -0.17296106 7.2069707e+31 0
1.2696325 -1.3981699 -0.16523184 7.2069707e+31 1
1.9191122 -2.1134028 -0.1496098 7.2069707e+31 2
3.9225056 -4.3196192 -0.10184711 7.2069707e+31 3
0.9468627 -1.0322914 -0.17199366 7.2069707e+31 0
1.2826722 -1.3983986 -0.16601567 7.2069707e+31 1
1.921706 -2.095088 -0.14899245 7.2069707e+31 2
3.9265597 -4.2808256 -0.10139465 7.2069707e+31 3
0.95516837 -1.0309378 -0.17256267 7.2069707e+31 0
1.2685564 -1.3691856 -0.16329944 7.2069707e+31 1
1.9367507 -2.090385 -0.14934565 7.2069707e+31 2
3.9435065 -4.2563281 -0.10128075 7.2069707e+31 3
0.95197672 -1.0172306 -0.17106389 7.2069707e+31 0
1.2835798 -1.3715636 -0.16434741 7.2069707e+31 1
1.9361594 -2.0688746 -0.14849952 7.2069707e+31 2
3.9603345 -4.2317982 -0.10116757 7.2069707e+31 3
0.96541339 -1.0212917 -0.17255746 7.2069707e+31 0
1.2888001 -1.3633962 -0.16413984 7.2069707e+31 1
1.9405044 -2.0528212 -0.14804269 7.2069707e+31 2
3.9779789 -4.2082253 -0.10107886 7.2069707e+31 3
0.96623838 -1.0119678 -0.17179722 7.2069707e+31 0
1.295758 -1.3570827 -0.16415866 7.2069707e+31 1
1.9507177 -2.0430398 -0.14803971 7.2069707e+31 2
3.9859405 -4.1745839 -0.10074885 7.2069707e+31 3
18.688984 -19.573483 0.47238448 nan 4
0.96880007 -1.0045336 -0.17135639 7.2069707e+31 0
1.3023915 -1.3504293 -0.16414048 7.2069707e+31 1
1.9657009 -2.0382044 -0.14840055 7.2069707e+31 2
3.9859827 -4.1330028 -0.10022568 7.2069707e+31 3
0.97541195 -1.0013083 -0.17163707 7.2069707e+31 0
1.3079988 -1.3427252 -0.16399793 7.2069707e+31 1
1.9732082 -2.0255954 -0.14819989 7.2069707e+31 2
3.9958539 -4.1019406 -0.099956274 7.2069707e+31 3
0.96686602 -0.98264509 -0.16926554 7.2069707e+31 0
1.312819 -1.334244 -0.16376273 7.2069707e+31 1
1.9723997 -2.0045891 -0.14738359 7.2069707e+31 2
4.0109925 -4.0764513 -0.099823214 7.2069707e+31 3
0.98893172 -0.99505717 -0.17225423 7.2069707e+31 0
1.3221654 -1.3303549 -0.16409576 7.2069707e+31 1
1.9879587 -2.000272 -0.14779606 7.2069707e+31 2
4.0273895 -4.0523353 -0.099725142 7.2069707e+31 3
0.98142356 -0.97766447 -0.17009179 7.2069707e+31 0
1.3144408 -1.3094062 -0.16232145 7.2069707e+31 1
1.9905492 -1.9829248 -0.14724877 7.2069707e+31 2
4.042294 -4.0268111 -0.099593781 7.2069707e+31 3
0.9889704 -0.97536701 -0.17055131 7.2069707e+31 0
1.3356847 -1.3173122 -0.16412841 7.2069707e+31 1
2.0023594 -1.9748166 -0.14738923 7.2069707e+31 2
4.0537858 -3.9980257 -0.099382527 7.2069707e+31 3
0.99661875 -0.97311604 -0.17102802 7.2069707e+31 0
1.3275307 -1.2962244 -0.16232702 7.2069707e+31 1
2.0165625 -1.969007 -0.14770725 7.2069707e+31 2
4.0635943 -3.9677651 -0.099134773 7.2069707e+31 3
1.0044717 -0.97100854 -0.17153928 7.2069707e+31 0
1.3414258 -1.2967373 -0.16323021 7.2069707e+31 1
2.0216873 -1.9543365 -0.14736414 7.2069707e+31 2
4.0827889 -3.9467745 -0.099119768 7.2069707e+31 3
1.0075483 -0.96427208 -0.17123815 7.2069707e+31 0
1.3461835 -1.2883623 -0.16302226 7.2069707e+31 1
2.0230794 -1.9361839 -0.14675722 7.2069707e+31 2
4.0860209 -3.9105179 -0.098721713 7.2069707e+31 3
1.0111505 -0.958067 -0.17103304 7.2069707e+31 0
1.3592932 -1.2879329 -0.16382696 7.2069707e+31 1
2.036761 -1.929835 -0.14704701 7.2069707e+31 2
4.0960817 -3.8810453 -0.09849412 7.2069707e+31 3
1.0101455 -0.94756299 -0.17005853 7.2069707e+31 0
1.3628966 -1.2784598 -0.16348781 7.2069707e+31 1
2.0389898 -1.9126662 -0.14651477 7.2069707e+31 2
4.1046538 -3.8503542 -0.098235495 7.2069707e+31 3
1.0273057 -0.95403677 -0.17214122 7.2069707e+31 0
1.3732519 -1.2753096 -0.16396208 7.2069707e+31 1
2.0555315 -1.9089279 -0.14701487 7.2069707e+31 2
4.1184454 -3.8247118 -0.098106079 7.2069707e+31 3
1.0153394 -0.93350071 -0.16935086 7.2069707e+31 0
1.3761979 -1.2652732 -0.16355546 7.2069707e+31 1
2.0393479 -1.8749719 -0.14518422 7.2069707e+31 2
4.136354 -3.8029544 -0.098077931 7.2069707e+31 3
1.0211601 -0.92946196 -0.16954347 7.2069707e+31 0
1.3878044 -1.2631823 -0.16418122 7.2069707e+31 1
2.0629175 -1.8776715 -0.14619112 7.2069707e+31 2
4.1436219 -3.771533 -0.097801343 7.2069707e+31 3
1.0334842 -0.9312619 -0.17081344 7.2069707e+31 0
1.3764788 -1.2403307 -0.16210474 7.2069707e+31 1
2.0722492 -1.8672823 -0.14618814 7.2069707e+31 2
4.1463017 -3.7361896 -0.097421892 7.2069707e+31 3
1.0380187 -0.92597407 -0.17079458 7.2069707e+31 0
1.3843142 -1.2348901 -0.1622974 7.2069707e+31 1
2.064805 -1.8419281 -0.14501064 7.2069707e+31 2
4.1559653 -3.7073667 -0.097211629 7.2069707e+31 3
1.0387017 -0.91728669 -0.17014921 7.2069707e+31 0
1.3952843 -1.232188 -0.16285828 7.2069707e+31 1
2.0949037 -1.8500282 -0.14647217 7.2069707e+31 2
4.169096 -3.6817658 -0.097086407 7.2069707e+31 3
1.0499221 -0.91788137 -0.17123236 7.2069707e+31 0
1.4018593 -1.225558 -0.16290754 7.2069707e+31 1
2.1006722 -1.8364866 -0.14623085 7.2069707e+31 2
4.1891551 -3.6623166 -0.097125351 7.2069707e+31 3
1.058911 -0.91642761 -0.17194796 7.2069707e+31 0
1.3923386 -1.2049903 -0.16109809 7.2069707e+31 1
2.0984929 -1.8161269 -0.14544439 7.2069707e+31 2
4.1785636 -3.6163106 -0.096458837 7.2069707e+31 3
1.0523285 -0.90155637 -0.17014404 7.2069707e+31 0
1.4073758 -1.2057344 -0.16213751 7.2069707e+31 1
2.1141856 -1.8112762 -0.14590174 7.2069707e+31 2
4.1975837 -3.5961759 -0.096481092 7.2069707e+31 3
1.0610561 -0.89986205 -0.17082463 7.2069707e+31 0
1.4041224 -1.1908102 -0.16107386 7.2069707e+31 1
2.1130168 -1.7920105 -0.14520013 7.2069707e+31 2
4.1983609 -3.5605521 -0.096088037 7.2069707e+31 3
1.0499251 -0.88142347 -0.16832006 7.2069707e+31 0
1.4075822 -1.1816804 -0.1607901 7.2069707e+31 1
2.1151357 -1.7756793 -0.14473306 7.2069707e+31 2
4.2208662 -3.5434628 -0.096195899 7.2069707e+31 3
1.0628498 -0.88324088 -0.16968109 7.2069707e+31 0
1.4099493 -1.1716847 -0.16038844 7.2069707e+31 1
2.1250346 -1.7659292 -0.14480366 7.2069707e+31 2
4.2308435 -3.5158815 -0.096020944 7.2069707e+31 3
1.0643629 -0.87552726 -0.16922078 7.2069707e+31 0
1.4217719 -1.1695261 -0.16106527 7.2069707e+31 1
2.1235414 -1.7467899 -0.1441042 7.2069707e+31 2
4.2407579 -3.4883773 -0.095848404 7.2069707e+31 3
1.0753295 -0.87555927 -0.17026532 7.2069707e+31 0
1.4208472 -1.156888 -0.16030239 7.2069707e+31 1
2.1335397 -1.7371795 -0.14419071 7.2069707e+31 2
4.2533927 -3.4632149 -0.095740907 7.2069707e+31 3
1.0738816 -0.86547625 -0.16934788 7.2069707e+31 0
1.4262133 -1.1494318 -0.16025656 7.2069707e+31 1
2.1610761 -1.7416817 -0.14546059 7.2069707e+31 2
4.2575765 -3.4313197 -0.095447212 7.2069707e+31 3
1.0692284 -0.8529318 -0.1679386 7.2069707e+31 0
1.4469131 -1.1542138 -0.16193119 7.2069707e+31 1
2.1579041 -1.7213769 -0.14466523 7.2069707e+31 2
4.2757378 -3.4107893 -0.095470354 7.2069707e+31 3
1.0737501 -0.84777766 -0.16798009 7.2069707e+31 0
1.4354345 -1.1333449 -0.16000956 7.2069707e+31 1
2.1629484 -1.7077523 -0.14442843 7.2069707e+31 2
4.2695899 -3.3710477 -0.094955072 7.2069707e+31 3
1.082178 -0.84567147 -0.16863413 7.2069707e+31 0
1.4487586 -1.1321371 -0.16086102 7.2069707e+31 1
2.1796365 -1.7032839 -0.14497155 7.2069707e+31 2
4.2925401 -3.3544192 -0.095090814 7.2069707e+31 3
1.0936419 -0.8458457 -0.16975853 7.2069707e+31 0
1.4500774 -1.1215205 -0.16038202 7.2069707e+31 1
2.177474 -1.6841043 -0.14426513 7.2069707e+31 2
4.3022437 -3.3274462 -0.094935566 7.2069707e+31 3
1.0877451 -0.83261555 -0.16819409 7.2069707e+31 0
1.4429942 -1.1045414 -0.15898502 7.2069707e+31 1
2.1749701 -1.6648331 -0.14354524 7.2069707e+31 2
4.3137484 -3.3019629 -0.094823465 7.2069707e+31 3
1.0931785 -0.82812834 -0.16839106 7.2069707e+31 0
1.4713229 -1.1145885 -0.16148938 7.2069707e+31 1
2.18681 -1.6565999 -0.1437775 7.2069707e+31 2
4.3226213 -3.2745662 -0.094656967 7.2069707e+31 3
1.0927577 -0.81923205 -0.16769239 7.2069707e+31 0
1.4643916 -1.0978431 -0.16012335 7.2069707e+31 1
2.1902542 -1.6420168 -0.14346169 7.2069707e+31 2
4.3301401 -3.2462723 -0.09446454 7.2069707e+31 3
1.0926244 -0.81061965 -0.16704707 7.2069707e+31 0
1.4783975 -1.0968252 -0.16105239 7.2069707e+31 1
2.2068288 -1.6372495 -0.14400864 7.2069707e+31 2
4.3409739 -3.2205749 -0.094347976 7.2069707e+31 3
1.1087458 -0.81400609 -0.16888666 7.2069707e+31 0
1.48278 -1.0886102 -0.16093411 7.2069707e+31 1
2.2099662 -1.6224872 -0.14368151 7.2069707e+31 2
4.3467069 -3.1912146 -0.094124168 7.2069707e+31 3
1.1129905 -0.80857849 -0.1689145 7.2069707e+31 0
1.4787469 -1.0742975 -0.15991062 7.2069707e+31 1
2.2111938 -1.6064142 -0.14323667 7.2069707e+31 2
3.5346804 -2.5679164 -0.076261103 5.4058328e+22 3
1.1127342 -0.79991227 -0.16826573 7.2069707e+31 0
1.4850146 -1.067534 -0.16000848 7.2069707e+31 1
2.2170634 -1.5937827 -0.14309825 7.2069707e+31 2
3.5395985 -2.5445147 -0.076091424 5.4058328e+22 3
1.1308985 -0.8044135 -0.17040139 7.2069707e+31 0
1.4905921 -1.0602653 -0.16003551 7.2069707e+31 1
2.2265491 -1.583755 -0.14319694 7.2069707e+31 2
3.534981 -2.5144489 -0.075720601 5.4058328e+22 3
3.5549965 -2.528686 0.076149449 5.4058328e+22 4
1.1248039 -0.7916283 -0.1688838 7.2069707e+31 0
1.5035845 -1.0582112 -0.16085961 7.2069707e+31 1
2.2438033 -1.5791714 -0.14379635 7.2069707e+31 2
3.5559442 -2.5026462 -0.075900316 5.4058328e+22 3
3.573683 -2.5151305 0.076279052 5.4058328e+22 4
1.1335015 -0.789294 -0.16959429 7.2069707e+31 0
1.4993527 -1.0440481 -0.15984569 7.2069707e+31 1
2.2293093 -1.5523406 -0.14236768 7.2069707e+31 2
3.5635302 -2.4814019 -0.075796127 5.4058328e+22 3
3.6035714 -2.5092838 0.076647907 5.4058328e+22 4
1.1178724 -0.77012974 -0.16667691 7.2069707e+31 0
1.5064005 -1.0377963 -0.16004115 7.2069707e+31 1
2.2523122 -1.5516732 -0.14333878 7.2069707e+31 2
3.5972993 -2.4782679 -0.07624954 5.4058328e+22 3
104.85565 -72.23764 2.2225583 7.2069707e+31 4
1.1256467 -0.76720434 -0.1672613 7.2069707e+31 0
1.5129104 -1.0311507 -0.16018231 7.2069707e+31 1
2.2540102 -1.5362604 -0.14295562 7.2069707e+31 2
3.6252687 -2.4708657 -0.076579235 5.4058328e+22 3
101.47359 -69.161118 2.1435051 7.2069707e+31 4
1.1361036 -0.76602995 -0.16824317 7.2069707e+31 0
1.5062596 -1.0156115 -0.15893783 7.2069707e+31 1
2.2615223 -1.5248555 -0.14294609 7.2069707e+31 2
4.4209766 -2.9808905 -0.093071163 7.2069707e+31 3
98.343948 -66.309456 2.0703568 7.2069707e+31 4
1.1299967 -0.75371099 -0.16677792 7.2069707e+31 0
1.5227357 -1.0156691 -0.16013783 7.2069707e+31 1
2.2651479 -1.5108601 -0.14269538 7.2069707e+31 2
4.4161129 -2.9455597 -0.092657164 7.2069707e+31 3
95.449379 -63.665005 2.0026846 7.2069707e+31 4
1.1312122 -0.74636626 -0.16640376 7.2069707e+31 0
1.5224092 -1.0044755 -0.15957266 7.2069707e+31 1
2.2760639 -1.5017318 -0.14290763 7.2069707e+31 2
4.4264641 -2.9205515 -0.092566416 7.2069707e+31 3
92.749947 -61.195797 1.9395938 7.2069707e+31 4
1.1481552 -0.74932206 -0.16834219 7.2069707e+31 0
1.5228121 -0.99383485 -0.15909138 7.2069707e+31 1
2.2670033 -1.4795173 -0.14187191 7.2069707e+31 2
4.4273467 -2.889425 -0.092281215 7.2069707e+31 3
90.245125 -58.896793 1.8810232 7.2069707e+31 4
1.1447283 -0.73894042 -0.16729523 7.2069707e+31 0
1.5176159 -0.97964525 -0.15803418 7.2069707e+31 1
2.2714365 -1.4662485 -0.1416882 7.2069707e+31 2
4.4314919 -2.8605986 -0.092067964 7.2069707e+31 3
87.909836 -56.747196 1.8264031 7.2069707e+31 4
1.159785 -0.74046057 -0.16895181 7.2069707e+31 0
1.5379977 -0.98192912 -0.1596427 7.2069707e+31 1
2.2837703 -1.458065 -0.14200045 7.2069707e+31 2
4.4410772 -2.8353896 -0.09197104 7.2069707e+31 3
85.737923 -54.739067 1.7755641 7.2069707e+31 4
1.156891 -0.73048639 -0.16799538 7.2069707e+31 0
1.5376326 -0.97089493 -0.15909827 7.2069707e+31 1
2.2909384 -1.4465487 -0.14199407 7.2069707e+31 2
4.4449544 -2.8066416 -0.091759205 7.2069707e+31 3
83.665756 -52.828392 1.7271525 7.2069707e+31 4
1.1521845 -0.71947205 -0.1667868 7.2069707e+31 0
1.5338398 -0.95779353 -0.15820771 7.2069707e+31 1
2.2936575 -1.4322555 -0.14171642 7.2069707e+31 2
4.4708996 -2.791816 -0.092005119 7.2069707e+31 3
81.748741 -51.047325 1.682282 7.2069707e+31 4
1.1679821 -0.7212348 -0.16854882 7.2069707e+31 0
1.5412984 -0.95175946 -0.15848358 7.2069707e+31 1
2.2986827 -1.419448 -0.14158607 7.2069707e+31 2
4.4768333 -2.7644668 -0.091841273 7.2069707e+31 3
79.937332 -49.361702 1.6398996 7.2069707e+31 4
1.1745194 -0.71717453 -0.16897197 7.2069707e+31 0
1.5591925 -0.95206016 -0.15983143 7.2069707e+31 1
2.3056827 -1.4078753 -0.14158131 7.2069707e+31 2
4.479085 -2.7349787 -0.091605432 7.2069707e+31 3
78.237755 -47.772839 1.6001067 7.2069707e+31 4
1.1779368 -0.7111901 -0.16894929 7.2069707e+31 0
1.5468589 -0.93393016 -0.15808587 7.2069707e+31 1
2.3156734 -1.398109 -0.14176323 7.2069707e+31 2
4.4889474 -2.7102427 -0.09152849 7.2069707e+31 3
76.620033 -46.260044 1.5622653 7.2069707e+31 4
1.1760834 -0.70206124 -0.16817723 7.2069707e+31 0
1.561263 -0.93199354 -0.1590791 7.2069707e+31 1
2.3206666 -1.3853184 -0.14164256 7.2069707e+31 2
4.5062389 -2.6899927 -0.091605328 7.2069707e+31 3
75.10257 -44.832363 1.5267289 7.2069707e+31 4
1.1662271 -0.68828207 -0.16627298 7.2069707e+31 0
1.5500613 -0.9148128 -0.15746914 7.2069707e+31 1
2.3242633 -1.3717301 -0.14144117 7.2069707e+31 2
4.5086598 -2.6609137 -0.091382593 7.2069707e+31 3
73.660561 -43.472874 1.4929719 7.2069707e+31 4
1.1829035 -0.69016308 -0.16815588 7.2069707e+31 0
1.5591061 -0.90965778 -0.15792337 7.2069707e+31 1
2.3380582 -1.3641361 -0.14186329 7.2069707e+31 2
4.5088673 -2.6306908 -0.091118723 7.2069707e+31 3
72.31012 -42.189217 1.4613017 7.2069707e+31 4
1.1776022 -0.6791907 -0.16691682 7.2069707e+31 0
1.5683972 -0.90458453 -0.15840377 7.2069707e+31 1
2.3346133 -1.3465053 -0.14124347 7.2069707e+31 2
4.5140281 -2.6034987 -0.090958476 7.2069707e+31 3
71.016998 -40.959572 1.4310073 7.2069707e+31 4
1.1867058 -0.67654675 -0.167725 7.2069707e+31 0
1.5790147 -0.900204 -0.15901896 7.2069707e+31 1
2.3312025 -1.3290299 -0.14063282 7.2069707e+31 2
4.5230355 -2.5786047 -0.090878718 7.2069707e+31 3
69.783455 -39.78389 1.4021204 7.2069707e+31 4
1.1842487 -0.66731268 -0.16690345 7.2069707e+31 0
1.5633705 -0.88094407 -0.15699735 7.2069707e+31 1
2.3360245 -1.3163272 -0.1405244 7.2069707e+31 2
4.5345616 -2.5551817 -0.090852141 7.2069707e+31 3
68.624939 -38.669487 1.3749359 7.2069707e+31 4
1.1902668 -0.662875 -0.16728182 7.2069707e+31 0
1.5731553 -0.87611055 -0.15753752 7.2069707e+31 1
2.3467052 -1.3069105 -0.14077157 7.2069707e+31 2
4.542974 -2.5300412 -0.090765782 7.2069707e+31 3
67.510689 -37.597576 1.3488232 7.2069707e+31 4
1.1909308 -0.65545523 -0.16691189 7.2069707e+31 0
1.5795383 -0.86933398 -0.15773894 7.2069707e+31 1
2.3602481 -1.2990149 -0.14119208 7.2069707e+31 2
4.5413146 -2.4994133 -0.090481497 7.2069707e+31 3
66.444077 -36.56897 1.3238386 7.2069707e+31 4
1.1980292 -0.65156895 -0.16744748 7.2069707e+31 0
1.5882438 -0.86379397 -0.15817446 7.2069707e+31 1
2.3538966 -1.2802075 -0.14042696 7.2069707e+31 2
4.5570335 -2.4784217 -0.090546325 7.2069707e+31 3
65.439873 -35.590611 1.3002646 7.2069707e+31 4
1.1986462 -0.6441499 -0.16708089 7.2069707e+31 0
1.5915427 -0.85529166 -0.15807459 7.2069707e+31 1
2.3708148 -1.2740707 -0.14105397 7.2069707e+31 2
4.562387 -2.451817 -0.090407677 7.2069707e+31 3
64.477539 -34.650093 1.2776805 7.2069707e+31 4
1.1962942 -0.63518804 -0.1663077 7.2069707e+31 0
1.5932429 -0.84595311 -0.15782084 7.2069707e+31 1
2.3571618 -1.2515657 -0.13986713 7.2069707e+31 2
4.5584202 -2.4203527 -0.090087838 7.2069707e+31 3
22.86846 -12.142307 0.45194888 0 4
1.190502 -0.62449259 -0.16506578 7.2069707e+31 0
1.6008743 -0.8397584 -0.15815835 7.2069707e+31 1
2.3675592 -1.2419325 -0.14011341 7.2069707e+31 2
4.5751128 -2.3999321 -0.090179153 7.2069707e+31 3
62.68277 -32.881023 1.2355295 7.2069707e+31 4
1.2103095 -0.62717664 -0.16737469 7.2069707e+31 0
1.6076252 -0.83306378 -0.15841129 7.2069707e+31 1
2.3833115 -1.2350206 -0.14067796 7.2069707e+31 2
4.5826592 -2.3747122 -0.090092435 7.2069707e+31 3
61.836426 -32.043343 1.2156702 7.2069707e+31 4
1.2073721 -0.61800677 -0.16653852 7.2069707e+31 0
1.6097422 -0.8239643 -0.15821144 7.2069707e+31 1
2.3696785 -1.2129462 -0.13951309 7.2069707e+31 2
4.5824161 -2.3455603 -0.089855678 7.2069707e+31 3
61.020859 -31.234201 1.1965475 7.2069707e+31 4
1.22057 -0.61707038 -0.16793074 7.2069707e+31 0
1.6047943 -0.81131858 -0.15732397 7.2069707e+31 1
2.3959875 -1.2113136 -0.14070322 7.2069707e+31 2
4.5997791 -2.3254609 -0.089966737 7.2069707e+31 3
60.275475 -30.472824 1.1789252 7.2069707e+31 4
1.2227199 -0.61049092 -0.16780394 7.2069707e+31 0
1.6271724 -0.81242967 -0.15911706 7.2069707e+31 1
2.3876593 -1.1921326 -0.13986191 7.2069707e+31 2
4.5965757 -2.2950208 -0.089678235 7.2069707e+31 3
59.515804 -29.715601 1.1611426 7.2069707e+31 4
1.2047986 -0.59402657 -0.16493425 7.2069707e+31 0
1.6062971 -0.79198563 -0.15668604 7.2069707e+31 1
2.3895774 -1.1781824 -0.13962701 7.2069707e+31 2
4.6043296 -2.2701671 -0.089606658 7.2069707e+31 3
58.834297 -29.008282 1.1449988 7.2069707e+31 4
1.2161605 -0.59207863 -0.16608182 7.2069707e+31 0
1.604821 -0.78129512 -0.15615855 7.2069707e+31 1
2.3907239 -1.1639061 -0.1393518 7.2069707e+31 2
4.6063209 -2.2425528 -0.089425795 7.2069707e+31 3
58.129467 -28.299896 1.1285105 7.2069707e+31 4
1.2241173 -0.58838999 -0.16676405 7.2069707e+31 0
1.6182554 -0.77783823 -0.15708491 7.2069707e+31 1
2.399174 -1.1531982 -0.13950607 7.2069707e+31 2
4.6054068 -2.2136564 -0.089191779 7.2069707e+31 3
57.48386 -27.630465 1.1132774 7.2069707e+31 4
1.2158364 -0.57693452 -0.16524039 7.2069707e+31 0
1.6210797 -0.76922917 -0.15698329 7.2069707e+31 1
2.4035981 -1.140547 -0.13942955 7.2069707e+31 2
4.6242232 -2.1942704 -0.089342333 7.2069707e+31 3
56.860718 -26.981352 1.0985794 7.2069707e+31 4
1.2244453 -0.57352716 -0.16601808 7.2069707e+31 0
1.6348863 -0.76577675 -0.15794708 7.2069707e+31 1
2.4045317 -1.1262767 -0.1391549 7.2069707e+31 2
4.6241937 -2.1659608 -0.089131139 7.2069707e+31 3
56.251984 -26.348291 1.0842563 7.2069707e+31 4
1.2199904 -0.56401026 -0.16502915 7.2069707e+31 0
1.6457617 -0.76084745 -0.15862776 7.2069707e+31 1
2.4321048 -1.1243794 -0.14042307 7.2069707e+31 2
4.6412363 -2.1456769 -0.089251466 7.2069707e+31 3
55.671959 -25.737545 1.0705793 7.2069707e+31 4
1.2384826 -0.56505138 -0.16714586 7.2069707e+31 0
1.6458443 -0.75090808 -0.15827142 7.2069707e+31 1
2.431694 -1.1094481 -0.14007692 7.2069707e+31 2
4.6454749 -2.1194742 -0.089127816 7.2069707e+31 3
55.108723 -25.143074 1.0573144 7.2069707e+31 4
1.2206075 -0.54953003 -0.16436008 7.2069707e+31 0
1.6236049 -0.73096359 -0.15577891 7.2069707e+31 1
2.4295831 -1.0938232 -0.13963813 7.2069707e+31 2
4.6380348 -2.0880909 -0.088783398 7.2069707e+31 3
54.575184 -24.570309 1.0447048 7.2069707e+31 4
1.2457215 -0.55335295 -0.16736665 7.2069707e+31 0
1.6429403 -0.72979867 -0.15728156 7.2069707e+31 1
2.4392884 -1.0835388 -0.1398824 7.2069707e+31 2
4.6497488 -2.0654316 -0.088808589 7.2069707e+31 3
54.058693 -24.013023 1.0325037 7.2069707e+31 4
1.2346299 -0.54104197 -0.16551049 7.2069707e+31 0
1.6396013 -0.71850938 -0.1566156 7.2069707e+31 1
2.4420388 -1.0701551 -0.13973115 7.2069707e+31 2
4.665668 -2.0445983 -0.088916019 7.2069707e+31 3
53.560295 -23.471298 1.0207274 7.2069707e+31 4
1.2450987 -0.53821552 -0.16655061 7.2069707e+31 0
1.642696 -0.71008384 -0.15656967 7.2069707e+31 1
2.4400361 -1.0547479 -0.13931267 7.2069707e+31 2
4.668098 -2.0178661 -0.088768691 7.2069707e+31 3
53.07373 -22.942041 1.0092531 7.2069707e+31 4
1.2482313 -0.53216892 -0.16661116 7.2069707e+31 0
1.6531806 -0.70481437 -0.15723071 7.2069707e+31 1
2.4581957 -1.0480233 -0.14004818 7.2069707e+31 2
4.672945 -1.9922559 -0.08867009 7.2069707e+31 3
52.622528 -22.435007 0.99852479 7.2069707e+31 4
1.2636346 -0.53127593 -0.16831005 7.2069707e+31 0
1.652697 -0.69485128 -0.1568519 7.2069707e+31 1
2.4515653 -1.0307232 -0.13937469 7.2069707e+31 2
4.6774783 -1.9665744 -0.088568188 7.2069707e+31 3
25.466084 -10.706827 0.48220173 1.5182841e-35 4
1.2405175 -0.51426381 -0.16488597 7.2069707e+31 0
1.6666136 -0.69090444 -0.15784243 7.2069707e+31 1
2.4508295 -1.0160058 -0.13904196 7.2069707e+31 2
4.6733303 -1.9373566 -0.088304892 7.2069707e+31 3
51.73885 -21.448645 0.97763252 7.2069707e+31 4
1.2402394 -0.5068875 -0.16450964 7.2069707e+31 0
1.6621252 -0.67931283 -0.15709327 7.2069707e+31 1
2.4603004 -1.0055281 -0.13929193 7.2069707e+31 2
4.6833892 -1.9141076 -0.088312775 7.2069707e+31 3
51.311378 -20.971031 0.96755934 7.2069707e+31 4
1.2560319 -0.50601852 -0.16626632 7.2069707e+31 0
1.6674837 -0.67178041 -0.15727989 7.2069707e+31 1
2.4592514 -0.99076056 -0.13894999 7.2069707e+31 2
4.6787996 -1.8849516 -0.088047192 7.2069707e+31 3
30.642555 -12.34499 0.57664251 1.5414283e-44 4
1.2561315 -0.49876416 -0.1659469 7.2069707e+31 0
1.6586282 -0.6585809 -0.15613168 7.2069707e+31 1
2.4584241 -0.97615081 -0.13862538 7.2069707e+31 2
4.6936717 -1.8636863 -0.088150375 7.2069707e+31 3
6.3132234 -2.5067515 0.11856684 2.8014346e-37 4
1.2542601 -0.49076629 -0.165373 7.2069707e+31 0
1.6654754 -0.6516664 -0.15646717 7.2069707e+31 1
2.4621613 -0.96339333 -0.13856241 7.2069707e+31 2
4.7137904 -1.8444097 -0.088353693 7.2069707e+31 3
6.3288951 -2.4763672 0.11862685 2.8014346e-37 4
1.2575823 -0.48482069 -0.16548894 7.2069707e+31 0
1.6755626 -0.64595968 -0.15710907 7.2069707e+31 1
2.4645665 -0.95013487 -0.13842835 7.2069707e+31 2
4.7076964 -1.8149019 -0.088068068 7.2069707e+31 3
49.796127 -19.197306 0.93155003 7.2069707e+31 4
1.2426804 -0.47194368 -0.16321501 7.2069707e+31 0
1.6560065 -0.62891614 -0.15497822 7.2069707e+31 1
2.4734783 -0.93937457 -0.13866302 7.2069707e+31 2
4.7117438 -1.7894204 -0.087975092 7.2069707e+31 3
49.452507 -18.781013 0.92335141 7.2069707e+31 4
1.2605153 -0.47150999 -0.16524535 7.2069707e+31 0
1.67957 -0.6282621 -0.1568871 7.2069707e+31 1
2.4761777 -0.92624223 -0.13855267 7.2069707e+31 2
4.7179604 -1.7648063 -0.087925091 7.2069707e+31 3
49.110912 -18.370491 0.91524464 7.2069707e+31 4
1.2703806 -0.46796396 -0.16622943 7.2069707e+31 0
1.6799105 -0.61882055 -0.15662757 7.2069707e+31 1
2.4980447 -0.92019266 -0.1395167 7.2069707e+31 2
4.7265854 -1.7411094 -0.08792229 7.2069707e+31 3
48.793812 -17.97394 0.90764678 7.2069707e+31 4
1.2790005 -0.46388072 -0.16705137 7.2069707e+31 0
1.6760854 -0.60789943 -0.15598522 7.2069707e+31 1
2.4737113 -0.89719039 -0.13790509 7.2069707e+31 2
4.7159333 -1.7104219 -0.087563761 7.2069707e+31 3
48.472008 -17.580313 0.9000122 7.2069707e+31 4
1.2708542 -0.45374 -0.16568862 7.2069707e+31 0
1.6752821 -0.59813505 -0.15562984 7.2069707e+31 1
2.4881613 -0.88836175 -0.13846098 7.2069707e+31 2
4.7435927 -1.6936307 -0.087918803 7.2069707e+31 3
27.068926 -9.6645651 0.50170219 1.5414283e-44 4
1.2833345 -0.45096505 -0.16701929 7.2069707e+31 0
1.6718318 -0.58748341 -0.15503415 7.2069707e+31 1
2.4954441 -0.87690157 -0.13862021 7.2069707e+31 2
4.7438259 -1.6669853 -0.08776734 7.2069707e+31 3
47.873802 -16.822903 0.88573283 7.2069707e+31 4
1.2572966 -0.43475607 -0.16334529 7.2069707e+31 0
1.6781056 -0.58026612 -0.15534461 7.2069707e+31 1
2.4923205 -0.86181062 -0.1382053 7.2069707e+31 2
4.7448797 -1.6407149 -0.087633774 7.2069707e+31 3
47.605415 -16.461306 0.87923157 7.2069707e+31 4
1.2817574 -0.43604258 -0.16623749 7.2069707e+31 0
1.7063047 -0.58046985 -0.15768404 7.2069707e+31 1
2.488061 -0.84641641 -0.13773239 7.2069707e+31 2
4.7357297 -1.6110536 -0.087314725 7.2069707e+31 3
47.321594 -16.098391 0.87249029 7.2069707e+31 4
1.2834319 -0.42945561 -0.16617376 7.2069707e+31 0
1.6917883 -0.5660978 -0.1560787 7.2069707e+31 1
2.5098217 -0.83982402 -0.13870253 7.2069707e+31 2
4.7489214 -1.5890604 -0.087410174 7.2069707e+31 3
47.073715 -15.751573 0.8664552 7.2069707e+31 4
1.2826194 -0.42205551 -0.1657929 7.2069707e+31 0
1.6937739 -0.55734897 -0.15600249 7.2069707e+31 1
2.4984465 -0.82213253 -0.13784471 7.2069707e+31 2
4.7725401 -1.5704401 -0.0876991 7.2069707e+31 3
46.802914 -15.400849 0.86004078 7.2069707e+31 4
1.2780856 -0.41348401 -0.16493721 7.2069707e+31 0
1.707441 -0.55238831 -0.15700461 7.2069707e+31 1
2.5110409 -0.81236756 -0.13831346 7.2069707e+31 2
4.7574334 -1.5391165 -0.087278821 7.2069707e+31 3
46.568336 -15.065706 0.85433364 7.2069707e+31 4
1.2945949 -0.41167715 -0.16679966 7.2069707e+31 0
1.7023541 -0.54134333 -0.15628569 7.2069707e+31 1
2.5139117 -0.79941612 -0.1382494 7.2069707e+31 2
4.7516026 -1.5109949 -0.087031983 7.2069707e+31 3
46.316414 -14.728477 0.84834856 7.2069707e+31 4
1.2925843 -0.40392369 -0.16627799 7.2069707e+31 0
1.7068 -0.53336328 -0.15644675 7.2069707e+31 1
2.4985292 -0.78077316 -0.13718678 7.2069707e+31 2
4.7691326 -1.4903212 -0.087215319 7.2069707e+31 3
46.092472 -14.403581 0.84291542 7.2069707e+31 4
1.2897739 -0.395969 -0.16565938 7.2069707e+31 0
1.711071 -0.52530998 -0.15659523 7.2069707e+31 1
2.5253713 -0.77530545 -0.13844575 7.2069707e+31 2
4.7672954 -1.4635909 -0.087046631 7.2069707e+31 3
45.870621 -14.08258 0.83755851 7.2069707e+31 4
1.2880458 -0.38839319 -0.16518562 7.2069707e+31 0
1.6955142 -0.51125991 -0.1549353 7.2069707e+31 1
2.5259061 -0.7616536 -0.1382643 7.2069707e+31 2
4.7775483 -1.4406066 -0.087101065 7.2069707e+31 3
32.45536 -9.7864847 0.59170526 0 4
1.3034447 -0.38592848 -0.16691057 7.2069707e+31 0
1.721844 -0.50980961 -0.1571061 7.2069707e+31 1
2.5080254 -0.742585 -0.13708033 7.2069707e+31 2
4.7829499 -1.4161527 -0.087069198 7.2069707e+31 3
45.454704 -13.458388 0.8274622 7.2069707e+31 4
1.300586 -0.37801063 -0.1663001 7.2069707e+31 0
1.7069824 -0.49612829 -0.15552151 7.2069707e+31 1
2.5192337 -0.73220617 -0.13749085 7.2069707e+31 2
4.7863154 -1.3911253 -0.08700259 7.2069707e+31 3
45.247906 -13.15114 0.82248873 7.2069707e+31 4
1.2752639 -0.36373726 -0.1628274 7.2069707e+31 0
1.7141405 -0.48891586 -0.15594873 7.2069707e+31 1
2.524559 -0.72006756 -0.13758303 7.2069707e+31 2
4.7731524 -1.3614227 -0.086638339 7.2069707e+31 3
45.047646 -12.848718 0.81766903 7.2069707e+31 4
1.2930397 -0.36181736 -0.16486369 7.2069707e+31 0
1.7197862 -0.48122919 -0.15624121 7.2069707e+31 1
